# .PCD v0.7 - Point Cloud Data file format
VERSION 0.7
FIELDS x y z
SIZE 4 4 4
TYPE F F F
COUNT 1 1 1
WIDTH 1646
HEIGHT 1
VIEWPOINT 0 0 0 1 0 0 0
POINTS 1646
DATA ascii
6.3540001 -3.8998001 -1.6428
6.3629999 -3.9000001 -1.6445
6.3759003 -3.8961334 -1.6463667
6.3845501 -3.8954999 -1.64675
6.3997002 -3.8954999 -1.6483001
6.4003 -3.8943501 -1.6482999
6.4263 -3.8964 -1.64855
6.4756999 -3.8922999 -1.6499
6.4867001 -3.8934 -1.6497
6.5046248 -3.8944499 -1.647
6.5157404 -3.8943799 -1.64342
6.5218 -3.89395 -1.6415501
6.8786502 -3.8947999 -1.6492
6.8804002 -3.8903 -1.649
6.9194002 -3.8987 -1.6417
6.9233999 -3.8938999 -1.6457
6.9360499 -3.8926501 -1.64525
6.9714999 -3.9000001 -1.6485
7.3924332 -3.8937666 -1.6461
7.4064999 -3.8987498 -1.6463001
7.4175 -3.8973999 -1.6481
7.4231501 -3.8945 -1.6488
7.4386668 -3.8958666 -1.6462666
7.45155 -3.8963001 -1.6458
7.4681001 -3.8963251 -1.6419499
7.5534 -3.8956001 -1.6497999
7.7460799 -3.8942399 -1.64626
6.3342752 -3.8850749 -1.64935
6.3445196 -3.88606 -1.64564
6.3515 -3.8835001 -1.6451499
6.3938498 -3.8849499 -1.6484251
6.4054999 -3.8851752 -1.6488
6.4168 -3.8813 -1.6499
6.4664998 -3.8812001 -1.647
6.4833498 -3.8859 -1.64815
6.5054665 -3.8846333 -1.6472667
6.5137248 -3.8856502 -1.6452249
6.52425 -3.8840497 -1.6421002
6.8624001 -3.8801 -1.6497999
6.8864999 -3.8846333 -1.6495333
7.3849497 -3.8873501 -1.6495
7.3996 -3.888 -1.6468
7.4077001 -3.8894 -1.6483001
7.41645 -3.8865499 -1.64955
7.4218001 -3.8850999 -1.6477001
7.4382 -3.8821001 -1.6449
7.4400501 -3.8845501 -1.6454
7.4541502 -3.8847501 -1.645175
7.4655504 -3.8864498 -1.6418999
7.4735003 -3.8817 -1.6415
7.5654001 -3.8873999 -1.6483999
7.7476163 -3.8863833 -1.6468501
7.7512503 -3.8821502 -1.6410999
6.3379002 -3.8751502 -1.64885
6.3457994 -3.8736801 -1.64582
6.3513999 -3.8738999 -1.6440001
6.4063001 -3.8740332 -1.6486667
6.4294 -3.8726001 -1.6464
6.4356999 -3.8710999 -1.6449
6.4403 -3.8791001 -1.6467
6.4649 -3.87485 -1.6459501
6.47785 -3.8744001 -1.6458499
6.5071998 -3.8784001 -1.6469001
6.5150337 -3.8767335 -1.6472667
6.5201998 -3.8778999 -1.6467
6.8631501 -3.8737502 -1.64925
6.8864999 -3.8773999 -1.6488
6.8927999 -3.87375 -1.6495
6.9044499 -3.8722 -1.64895
6.9154196 -3.8770199 -1.6453001
6.9226999 -3.8733501 -1.644075
6.9372997 -3.8735499 -1.6422501
6.9473 -3.87115 -1.6438
7.3762999 -3.8729 -1.6493
7.3854003 -3.8766334 -1.6486
7.3930998 -3.8729999 -1.6496
7.4071503 -3.8731499 -1.6467
7.4180498 -3.8744998 -1.64605
7.4450002 -3.8771 -1.6456
7.4524999 -3.8732336 -1.6465334
7.4651332 -3.8748667 -1.6443666
7.4720998 -3.8794999 -1.6424
7.7476501 -3.87885 -1.64715
7.7528 -3.8740332 -1.6452665
6.3376999 -3.8603001 -1.6494
6.3432503 -3.8643501 -1.647375
6.3547397 -3.8658402 -1.6451399
6.3639002 -3.8639998 -1.64635
6.3750749 -3.86535 -1.6474251
6.3990998 -3.8650999 -1.6471
6.4052 -3.8634 -1.6468
6.4110999 -3.8698001 -1.6474
6.4284 -3.8652999 -1.6453
6.4383335 -3.8652668 -1.6447334
6.4565001 -3.8642001 -1.6431
6.4782 -3.8692 -1.6453
6.4837503 -3.8657498 -1.6459
6.4994001 -3.8683 -1.6490999
6.5001998 -3.8659999 -1.649
6.8587999 -3.8631501 -1.6498499
6.8653002 -3.8667998 -1.6489
6.8938999 -3.8640001 -1.6487001
6.9068003 -3.8652 -1.6486
6.9115 -3.8605001 -1.649
6.9242601 -3.8649201 -1.6451199
6.9898 -3.8687 -1.6486
7.375 -3.8663001 -1.6485
7.3853002 -3.8638 -1.6487
7.4142499 -3.86605 -1.6466
7.4256997 -3.8652 -1.6473666
7.4358001 -3.8620501 -1.648
7.4575 -3.8661001 -1.6467
7.4651504 -3.8654499 -1.6448666
7.4728003 -3.8643 -1.64115
7.4860997 -3.8628998 -1.6424001
7.4945002 -3.8652 -1.6423
7.5166001 -3.8622999 -1.6404001
7.7539001 -3.8657835 -1.64475
6.3434401 -3.8556199 -1.6490002
6.3555002 -3.8534498 -1.6496
6.36695 -3.8551002 -1.6471
6.37815 -3.8552001 -1.64685
6.3811002 -3.8515999 -1.6469001
6.3989496 -3.8555498 -1.6459
6.4066 -3.8562 -1.64625
6.4144998 -3.8545666 -1.6471
6.4212503 -3.8527498 -1.6473
6.4329805 -3.8550801 -1.64448
6.4429994 -3.8526666 -1.6449333
6.4570999 -3.85795 -1.6425
6.4653502 -3.8547499 -1.6437
6.4839001 -3.8576999 -1.64745
6.86344 -3.8559003 -1.6489398
6.8705001 -3.8531499 -1.6484001
6.8997002 -3.8597 -1.6493
6.9038 -3.8548498 -1.64955
6.9141502 -3.8552999 -1.6464
6.9230332 -3.8552999 -1.6437668
7.3347998 -3.8594999 -1.6488
7.3850002 -3.8572001 -1.6493499
7.3947501 -3.858 -1.64845
7.40415 -3.85445 -1.6497999
7.42735 -3.85765 -1.6487501
7.4356003 -3.8538334 -1.6489668
7.4451499 -3.8541999 -1.64885
7.4631667 -3.8569 -1.6469001
7.4720001 -3.8551002 -1.64555
7.4874496 -3.8541999 -1.64275
7.5173998 -3.8599 -1.6403
7.7558498 -3.8578835 -1.6443667
7.7618499 -3.85185 -1.6403
6.3590999 -3.8491001 -1.6497
6.3745003 -3.849 -1.6478
6.3837748 -3.8463502 -1.648025
6.3955498 -3.8455 -1.6489
6.4024 -3.8454499 -1.6478
6.4186001 -3.8470001 -1.6486
6.4241252 -3.8442001 -1.6481251
6.4329 -3.8434999 -1.64845
6.4458671 -3.8480332 -1.6457667
6.4534202 -3.8447201 -1.6461198
6.4612002 -3.8427999 -1.6475999
6.8663998 -3.84675 -1.64955
6.8758998 -3.8492999 -1.649
6.8817997 -3.8449333 -1.6495667
6.8962002 -3.8413 -1.6442
6.9028502 -3.8476501 -1.6473501
6.9155669 -3.8429 -1.6419667
6.9232001 -3.8478999 -1.6421
6.9492002 -3.8462 -1.6416
7.4366503 -3.8455501 -1.64925
7.4468002 -3.8445671 -1.6482667
7.4651666 -3.8451998 -1.6461667
7.4710503 -3.8457999 -1.6445
7.4834499 -3.8438501 -1.6410999
7.4928999 -3.8474 -1.6404001
7.7571998 -3.8457198 -1.6466999
7.7648501 -3.8445499 -1.642925
7.7733002 -3.8415 -1.6413
6.8771 -3.8319499 -1.6499
6.8859749 -3.8335001 -1.646
6.8913002 -3.8385999 -1.6456
6.9088001 -3.8347001 -1.6407
7.4386501 -3.8379002 -1.6489501
7.4429002 -3.8327 -1.6465
7.4653997 -3.8346 -1.6439
7.4707999 -3.8387001 -1.6438
7.7653751 -3.836025 -1.6464
7.7746501 -3.833925 -1.6423249
6.8779001 -3.8241501 -1.64925
6.8851337 -3.8276999 -1.6466999
6.8938165 -3.8249333 -1.6429501
7.4180999 -3.8257999 -1.6496
7.434 -3.8243999 -1.6459666
7.4424 -3.8296001 -1.6461
7.4575996 -3.8262501 -1.64175
7.7676673 -3.8258333 -1.6473001
7.7740998 -3.8250999 -1.6455666
7.7851334 -3.8257332 -1.6419667
7.7905002 -3.8292999 -1.6404001
6.8773003 -3.8158 -1.6482999
6.8829665 -3.8166332 -1.6468333
6.89644 -3.8152599 -1.6431
7.4140396 -3.8150399 -1.6489201
7.42695 -3.8148501 -1.64475
7.4359002 -3.8180001 -1.6439
7.7698002 -3.8104999 -1.6464
7.77315 -3.8157501 -1.646
7.7882004 -3.8142998 -1.6415
6.8655 -3.8010499 -1.6496
6.8754001 -3.80655 -1.6470001
6.8810501 -3.8056998 -1.64535
6.8919501 -3.8060999 -1.6410999
7.4092002 -3.8071001 -1.6489
7.4154 -3.8055 -1.6481
7.4267502 -3.8058751 -1.642575
7.76125 -3.8031001 -1.6498001
7.7756 -3.8055 -1.64555
7.7888002 -3.8031001 -1.6407
6.8649001 -3.7925501 -1.6461
6.8752999 -3.7983 -1.6447999
6.8880501 -3.7969999 -1.6407
7.4082999 -3.7979 -1.6479
7.4144502 -3.7951999 -1.645425
7.7631502 -3.7950001 -1.6494501
7.7756748 -3.7951751 -1.644675
7.7800002 -3.7972 -1.6442
7.7905502 -3.7950501 -1.6403
6.8326001 -3.7895 -1.65
6.8497 -3.7827001 -1.6473
6.8526497 -3.7857499 -1.64695
6.8642998 -3.7839 -1.6426001
6.8715501 -3.7879 -1.6417999
7.3965502 -3.7818499 -1.6496999
7.4083672 -3.7854998 -1.6459001
7.4157333 -3.7883999 -1.6421666
7.426033 -3.7823668 -1.6416
7.4361 -3.7836001 -1.6408
7.7579999 -3.7807 -1.6473
7.7666001 -3.7858 -1.6455668
7.7796998 -3.7883 -1.6434
6.8377337 -3.7752333 -1.6494333
6.8474998 -3.7746501 -1.6461
6.8559251 -3.775125 -1.6426749
7.3842001 -3.7741001 -1.6495
7.3948498 -3.7725501 -1.64855
7.4068666 -3.7763665 -1.6457
7.4126334 -3.7755668 -1.6439667
7.7579002 -3.7776999 -1.6471
7.7655001 -3.774025 -1.645275
7.7735333 -3.7734334 -1.6420001
6.8295002 -3.7634001 -1.6492
6.8376002 -3.7651 -1.64835
6.8482666 -3.7645333 -1.6452001
6.8512001 -3.7661333 -1.6433667
6.8618999 -3.7676001 -1.6404999
7.3593998 -3.7697999 -1.65
7.3794999 -3.7660999 -1.6479
7.3912001 -3.7621999 -1.64695
7.4068336 -3.7637999 -1.6436334
7.4103999 -3.7646 -1.6426001
7.7697001 -3.7685001 -1.6483001
7.7762856 -3.764643 -1.6443714
7.7800002 -3.7646999 -1.6415
6.8338599 -3.7558999 -1.64818
6.8489499 -3.7550001 -1.64305
6.8527999 -3.7598 -1.643
7.3281002 -3.7537 -1.6456
7.3390002 -3.7537999 -1.6449
7.369 -3.7579999 -1.6453
7.3754997 -3.75425 -1.6461
7.3829999 -3.7507 -1.6445
7.4065399 -3.7540002 -1.64254
7.7750001 -3.7593999 -1.6483999
6.8295002 -3.747 -1.6475
6.8339248 -3.7446752 -1.64615
6.8427663 -3.747 -1.6415334
7.3043251 -3.7430751 -1.646975
7.3175001 -3.7428 -1.6427
7.3274002 -3.7451 -1.6421
7.3655 -3.7419 -1.6432
7.3853326 -3.7441666 -1.6442333
7.4065752 -3.7439251 -1.64135
7.4159999 -3.7414 -1.6415
7.7866998 -3.74575 -1.6458
7.7918406 -3.7420201 -1.6442999
6.836875 -3.7365251 -1.646475
6.8433337 -3.7361329 -1.6442666
7.0037498 -3.73175 -1.64495
7.0139503 -3.7318001 -1.6480501
7.0218 -3.7304001 -1.6481
7.2996001 -3.7307999 -1.6463
7.3031998 -3.7345333 -1.6455334
7.3123498 -3.7346001 -1.64105
7.3653331 -3.734 -1.6424333
7.3845501 -3.7328 -1.6431
7.40905 -3.7365 -1.6424
7.4165249 -3.7338002 -1.6414751
7.7876501 -3.73175 -1.6482501
7.7965498 -3.7360001 -1.64325
7.8006001 -3.7305 -1.6421
6.8381 -3.7297001 -1.6472
6.8427248 -3.7246749 -1.64695
6.9861999 -3.7265 -1.6424999
6.9942999 -3.724 -1.645
7.0080996 -3.7217002 -1.6472499
7.0247002 -3.7291 -1.6485
7.3039804 -3.7247996 -1.64496
7.3134999 -3.7255001 -1.6403999
7.3270001 -3.7223001 -1.6425
7.3346 -3.7246499 -1.6414499
7.3648 -3.7228 -1.6413
7.3894501 -3.7266002 -1.6434
7.3989 -3.7212 -1.6446
7.4085999 -3.7205 -1.6461999
7.4169402 -3.7241797 -1.64326
7.4201999 -3.7263999 -1.6408
7.7870998 -3.7230999 -1.6483666
7.7983994 -3.7276001 -1.6433333
7.81145 -3.7269499 -1.64505
6.9577999 -3.7126999 -1.6423
6.9622998 -3.7123001 -1.6431
6.9717002 -3.7137668 -1.6432333
7.3054333 -3.7161667 -1.6459665
7.3113999 -3.7152665 -1.6443332
7.3257999 -3.7186 -1.6418999
7.3355498 -3.7165499 -1.6422
7.3404999 -3.7119 -1.6413
7.3656001 -3.7160001 -1.6408
7.382 -3.7156999 -1.6411
7.4040999 -3.7183001 -1.6479
7.4101 -3.7184999 -1.6489
7.4249291 -3.7175858 -1.6450285
7.4335394 -3.7141399 -1.6447201
7.7821002 -3.7189 -1.649
6.8617001 -3.7047 -1.6415
6.9669671 -3.7058334 -1.6458
6.9733005 -3.7027333 -1.6449666
6.9815998 -3.7007999 -1.6454
7.2992001 -3.7051001 -1.6490999
7.3053408 -3.7049203 -1.64702
7.3129997 -3.7051501 -1.6436501
7.3298001 -3.7065001 -1.6415
7.3312001 -3.7042999 -1.6416
7.342 -3.7098 -1.6414
7.3743 -3.7089 -1.6417
7.4370828 -3.7058666 -1.6468166
7.4426751 -3.705575 -1.64355
6.8629999 -3.6998 -1.6411999
6.8743834 -3.6955001 -1.6428833
6.9175 -3.6912 -1.6429
6.9224501 -3.69245 -1.6426001
6.9334998 -3.6968999 -1.6438
6.945075 -3.6950502 -1.647675
6.9534998 -3.6953502 -1.6486
6.9647002 -3.6963336 -1.6495
6.9727001 -3.6961 -1.6459
7.3043251 -3.6950498 -1.6458
7.3127003 -3.6950002 -1.6440001
7.3607001 -3.6965001 -1.6435
7.3848 -3.6970999 -1.6478
7.4380999 -3.6982999 -1.6494
7.4437566 -3.6948855 -1.6455572
6.8580999 -3.681 -1.64465
6.8674002 -3.6860001 -1.6406
6.8997998 -3.6817999 -1.6437
6.9033999 -3.6809001 -1.6442
6.9169002 -3.6828001 -1.6469001
6.9260001 -3.6849 -1.6488
6.9545002 -3.6863999 -1.6492
7.2980003 -3.6847 -1.6482999
7.3058 -3.6867332 -1.6450666
7.3130665 -3.6857002 -1.6428
7.32375 -3.6848998 -1.64375
7.3346 -3.6889 -1.6408
7.3513999 -3.6889999 -1.6411
7.3636999 -3.6893001 -1.6434
7.3768001 -3.6875 -1.6482
7.4474125 -3.6855497 -1.6459125
7.4538002 -3.68205 -1.64275
7.7841001 -3.6856251 -1.645175
6.8564997 -3.6733499 -1.6435751
6.8635001 -3.6703 -1.6433001
6.8758001 -3.67155 -1.6445
6.8838997 -3.6740999 -1.6449667
6.8933001 -3.6768999 -1.6445
6.9084001 -3.6782 -1.6474
6.9158254 -3.674 -1.64775
6.9239001 -3.6784 -1.6478
7.2965002 -3.67658 -1.6475201
7.3008499 -3.6719 -1.6475999
7.3145003 -3.6741333 -1.6437
7.3237 -3.6740665 -1.6427666
7.3495998 -3.6795001 -1.6426001
7.4456501 -3.6736999 -1.6485
7.4546194 -3.6753001 -1.6438801
7.7769499 -3.6736 -1.6498499
7.7847748 -3.6772749 -1.644575
6.8639336 -3.6687334 -1.6449333
6.8841 -3.6661003 -1.6492001
6.8927498 -3.66855 -1.64855
6.9175 -3.6668 -1.6466999
6.9221501 -3.6666498 -1.6475501
7.2986665 -3.6643667 -1.6469666
7.3028002 -3.6645999 -1.646
7.3172002 -3.6645999 -1.64335
7.3250504 -3.6644001 -1.64205
7.3323998 -3.6624 -1.6432
7.3444004 -3.6615 -1.64785
7.4441748 -3.6645501 -1.6487751
7.456625 -3.6664751 -1.645175
7.4622502 -3.663075 -1.6432251
7.7771997 -3.6647 -1.6452601
7.7816496 -3.6640999 -1.6416
7.3056335 -3.6560335 -1.64745
7.3139668 -3.6550667 -1.6453667
7.3214998 -3.6570001 -1.6434
7.3470001 -3.6529 -1.6476001
7.4389 -3.651 -1.648
7.4531002 -3.6565499 -1.6482999
7.4637198 -3.6543198 -1.6436201
7.7774 -3.6577001 -1.6486
7.7833004 -3.6582749 -1.6448499
7.3154998 -3.6457 -1.6481001
7.3260498 -3.6440001 -1.64825
7.3332 -3.6403999 -1.6492
7.4355001 -3.6403999 -1.6464
7.4424 -3.6498001 -1.6485
7.4548998 -3.6484499 -1.6479
7.4656334 -3.6456668 -1.6424999
7.4907999 -3.6419001 -1.6404001
7.5016999 -3.6443 -1.6425
7.5131502 -3.6426501 -1.6444
6.9591999 -3.6319001 -1.6496
6.9879999 -3.6389 -1.643
7.0093999 -3.6389999 -1.647
7.3354502 -3.6359 -1.6492
7.3400002 -3.6327 -1.6497
7.3965998 -3.6301999 -1.6465
7.4008999 -3.6322999 -1.6447999
7.43645 -3.6352501 -1.6461
7.4492002 -3.6386001 -1.646
7.4553499 -3.6317 -1.6465001
7.4630251 -3.6353998 -1.641575
6.9453335 -3.6219997 -1.6452667
6.9538999 -3.6256332 -1.6413001
7.0496998 -3.6273999 -1.6456
7.3983498 -3.6251998 -1.6464
7.4024 -3.6242747 -1.645025
7.4271002 -3.6249001 -1.6435
7.4362497 -3.6265502 -1.6440001
7.4489002 -3.6271 -1.6476001
7.4639668 -3.6278999 -1.6415334
7.4740334 -3.6260669 -1.6431665
7.4837503 -3.6284001 -1.6433001
6.9471126 -3.6145875 -1.644425
6.9503999 -3.6111 -1.6485
6.9881001 -3.6120999 -1.648
7.4064999 -3.6162751 -1.6457
7.4159002 -3.6124001 -1.64575
7.4257002 -3.6101999 -1.6473
7.4310999 -3.6129 -1.6432
7.4452753 -3.6140249 -1.6451499
7.4552999 -3.6169331 -1.6452001
7.4608998 -3.6101999 -1.6403
7.4769497 -3.6166501 -1.6411
7.4822001 -3.6119001 -1.6416
6.3474002 -3.6040001 -1.6499
6.3699999 -3.6013999 -1.6469001
6.4137998 -3.6056001 -1.6488
6.5332003 -3.6012001 -1.6486001
6.5622001 -3.6027999 -1.6483001
6.5766501 -3.6015999 -1.64255
6.9498 -3.6080999 -1.6404999
6.9546747 -3.6079249 -1.647675
6.9618335 -3.6055 -1.6466666
6.9756999 -3.6003001 -1.6445
6.9909 -3.6082001 -1.6456
7.4071999 -3.6096001 -1.6466
7.4144001 -3.6075501 -1.64765
7.4244666 -3.6048 -1.6483332
7.4322 -3.6034 -1.64785
7.455575 -3.60625 -1.64565
7.4660997 -3.6027 -1.64055
6.3369999 -3.59165 -1.6452999
6.3443999 -3.5971999 -1.6461999
6.3699002 -3.5938001 -1.6437
6.3727999 -3.5978999 -1.6447001
6.4246998 -3.5964999 -1.6499
6.4587002 -3.5998001 -1.6497
6.5267 -3.5962999 -1.648
6.5351496 -3.5957 -1.64845
6.5438004 -3.5952001 -1.6487999
6.5552001 -3.5964 -1.6463
6.9580331 -3.5929334 -1.6472334
6.9618001 -3.5985 -1.6468
6.9728999 -3.596 -1.64235
7.4278998 -3.5999 -1.6494
7.4326 -3.5964999 -1.6499
7.4552398 -3.59604 -1.6444399
6.3269997 -3.5840499 -1.6489751
6.3364 -3.5874 -1.6459
6.3428001 -3.5834501 -1.6451167
6.3536 -3.5837333 -1.6417333
6.3652501 -3.5848501 -1.6417501
6.4158001 -3.58605 -1.6458499
6.4391999 -3.5864999 -1.6445
6.5351663 -3.5845001 -1.6468
6.5473003 -3.5855 -1.6436
6.5524254 -3.58495 -1.642725
6.5837998 -3.5803001 -1.6404001
6.9418001 -3.5827999 -1.6490999
6.9545002 -3.5864999 -1.6468
6.9647503 -3.5857251 -1.643575
6.9706998 -3.5867 -1.6423
7.4485502 -3.5857999 -1.6492
7.4560428 -3.5844002 -1.6439714
7.4734998 -3.5826001 -1.6401
6.3274999 -3.5731332 -1.6496
6.333775 -3.5746 -1.6486249
6.3460999 -3.5761669 -1.6465
6.3558598 -3.5761399 -1.6451199
6.3655801 -3.5759201 -1.64228
6.3742499 -3.5745001 -1.6435499
6.381 -3.5745502 -1.6437
6.39715 -3.57165 -1.6417999
6.4088998 -3.5769 -1.6423
6.4225998 -3.572 -1.6444
6.4343004 -3.5734501 -1.648
6.4468999 -3.5745335 -1.6494001
6.5153251 -3.5738502 -1.6488249
6.5271001 -3.5765333 -1.6459666
6.5345669 -3.5735333 -1.6455001
6.5401001 -3.5720999 -1.6456
6.5532598 -3.5757 -1.64226
6.5769 -3.5713 -1.6404999
6.5893002 -3.5753 -1.6433001
6.8958998 -3.5722001 -1.6495
6.9060001 -3.5723 -1.6489
6.9175 -3.5703001 -1.6458
6.9287 -3.5732 -1.6457
6.9435501 -3.5740499 -1.6435499
6.9563999 -3.5792999 -1.6439
6.96735 -3.5745001 -1.64045
6.9771004 -3.5738502 -1.64095
7.4632001 -3.5776501 -1.6445
6.3375001 -3.5678999 -1.6486
6.3456001 -3.5671999 -1.6454
6.3538399 -3.5643001 -1.6457399
6.3600001 -3.5602 -1.6451
6.3778663 -3.5684001 -1.6439333
6.38592 -3.5641198 -1.6444401
6.3958001 -3.5631001 -1.6421334
6.4038334 -3.5658665 -1.6408666
6.4109001 -3.5629001 -1.6435
6.4351001 -3.5689001 -1.6488
6.4439497 -3.5655499 -1.6495999
6.4534998 -3.5664001 -1.6497999
6.51685 -3.56675 -1.6495501
6.5244002 -3.5648499 -1.649
6.5374999 -3.5663998 -1.6468668
6.54598 -3.5644002 -1.6463801
6.5552001 -3.5673604 -1.6422001
6.5633674 -3.5630333 -1.6426667
6.5914001 -3.5638001 -1.6473
6.8754001 -3.56285 -1.64965
6.8896999 -3.5638001 -1.6475
6.8916001 -3.5622001 -1.6452
6.9123001 -3.5646999 -1.6443
6.9244003 -3.5641999 -1.6440001
6.9341497 -3.5615001 -1.6405499
6.3158998 -3.5504999 -1.6494
6.3253498 -3.55445 -1.6458499
6.33075 -3.5551 -1.6458499
6.3551998 -3.5539 -1.6457667
6.3625336 -3.5544999 -1.6449
6.3874249 -3.554975 -1.645125
6.3965502 -3.5562 -1.6447001
6.4057002 -3.5551 -1.6463
6.4150333 -3.5534668 -1.6479667
6.5180001 -3.5599999 -1.6496
6.52456 -3.5558801 -1.6489799
6.5307999 -3.5513999 -1.6488
6.5454998 -3.55685 -1.6474
6.5529251 -3.5548999 -1.6467999
6.5646996 -3.555517 -1.6441332
6.5709 -3.5538502 -1.64355
6.8654499 -3.5538001 -1.6481
6.8793001 -3.5558 -1.6447001
6.8822999 -3.5520999 -1.6449
6.8923669 -3.5535336 -1.6444334
6.9092002 -3.5550001 -1.6428
6.9128499 -3.5557001 -1.6435001
6.92205 -3.5553 -1.6427
6.9375 -3.55495 -1.64055
6.3157496 -3.5453501 -1.6482
6.3229003 -3.5436001 -1.6453333
6.3369746 -3.54585 -1.646
6.3572669 -3.5440333 -1.6450667
6.3666339 -3.5451 -1.6446667
6.39715 -3.5490999 -1.64635
6.4063001 -3.5465 -1.64785
6.4155502 -3.5440502 -1.6493499
6.4254336 -3.5446999 -1.6498333
6.5239501 -3.549 -1.64955
6.5370331 -3.546067 -1.6494001
6.5540252 -3.5459747 -1.647875
6.5633335 -3.5451667 -1.6471667
6.866817 -3.5462334 -1.6480335
6.8704 -3.5459001 -1.647
6.8860998 -3.5485001 -1.6452999
6.8957992 -3.54456 -1.6457199
6.9021001 -3.5438001 -1.6453
6.9160004 -3.5462334 -1.6431665
6.9249001 -3.5462999 -1.6423668
6.3098001 -3.5320001 -1.6485
6.3130598 -3.5348599 -1.64802
6.3267002 -3.53495 -1.6451
6.3352251 -3.53335 -1.6460001
6.3424997 -3.5337501 -1.64575
6.3572001 -3.5355999 -1.6441
6.3663502 -3.5350502 -1.64525
6.3748999 -3.5367 -1.6453
6.3833499 -3.53385 -1.6466501
6.4233499 -3.5353999 -1.64995
6.4350252 -3.53545 -1.64985
6.5384998 -3.54 -1.649
6.542933 -3.5341332 -1.6492333
6.5594997 -3.5373499 -1.6479499
6.5653248 -3.534575 -1.647025
6.5771503 -3.5351501 -1.64395
6.5812998 -3.5349 -1.6447001
6.8661003 -3.5341501 -1.6475501
6.8750339 -3.5366333 -1.647
6.8806 -3.5327001 -1.6477
6.8983002 -3.5362999 -1.6464
6.9059196 -3.53582 -1.6462599
6.9117999 -3.5325 -1.646
6.9228139 -3.5347857 -1.6422427
6.3165803 -3.5253799 -1.6480999
6.3237 -3.5228336 -1.6485666
6.3447599 -3.5261798 -1.6467199
6.3529997 -3.5246 -1.64675
6.3752751 -3.5255501 -1.6465
6.3884001 -3.5289998 -1.6471
6.39395 -3.5243499 -1.6477001
6.4036999 -3.52195 -1.6493499
6.4264998 -3.5281999 -1.6497999
6.5386 -3.5260501 -1.6499
6.5453334 -3.5240002 -1.6486334
6.5640335 -3.5263999 -1.6469001
6.5700998 -3.5288 -1.6467
6.8532 -3.5211999 -1.6488
6.8678002 -3.5287001 -1.6473
6.8733001 -3.5243332 -1.6479334
6.8862996 -3.5264332 -1.6481334
6.8902001 -3.5214 -1.6483001
6.907867 -3.5261333 -1.6471666
6.9172254 -3.52475 -1.646275
6.9276247 -3.5260999 -1.6421001
6.9303999 -3.5206001 -1.6408
6.3269162 -3.5150001 -1.6483334
6.3471665 -3.5158665 -1.6469666
6.3552666 -3.5162001 -1.6470333
6.3621502 -3.5145001 -1.64745
6.38375 -3.5187001 -1.6474
6.3929 -3.5160499 -1.64895
6.5387001 -3.5195 -1.6493
6.5419002 -3.5162001 -1.6482999
6.5580001 -3.5197999 -1.6458
6.8483496 -3.51335 -1.64955
6.8526669 -3.5137665 -1.6479334
6.87745 -3.5162499 -1.6479
6.8840504 -3.5117998 -1.6487
6.8960752 -3.5139499 -1.6487
6.9156666 -3.5144832 -1.64665
6.9274001 -3.5177 -1.6424999
6.9328499 -3.5143747 -1.641325
6.9794998 -3.513 -1.6418
6.3263001 -3.50595 -1.6487499
6.3367004 -3.5042248 -1.6482751
6.3557 -3.507 -1.64765
6.3649602 -3.5049999 -1.6482999
6.3729 -3.5050001 -1.6485
6.5239 -3.5090001 -1.65
6.8498001 -3.5086 -1.6494
6.8555002 -3.50372 -1.6484801
6.8868504 -3.5053 -1.6486
6.9063334 -3.5047333 -1.6497332
6.9194002 -3.5055499 -1.6473
6.9257402 -3.5042198 -1.6438799
6.9301 -3.5097001 -1.6422
6.9730997 -3.50035 -1.6419001
6.3338661 -3.4967334 -1.6492333
6.3455 -3.4976001 -1.64925
6.50495 -3.4949999 -1.6436501
6.5125999 -3.4979999 -1.6418999
6.8553333 -3.4949667 -1.6490334
6.8624749 -3.494225 -1.6485001
6.8744497 -3.4907498 -1.6498001
6.8962002 -3.49775 -1.64965
6.917233 -3.4959335 -1.6476334
6.9224663 -3.4940336 -1.6451
6.9309001 -3.4951501 -1.64095
6.9572001 -3.4911001 -1.643
6.4450998 -3.4846001 -1.6486
6.4538498 -3.4842501 -1.64555
6.4665499 -3.4872 -1.6436501
6.9061499 -3.4840002 -1.6489501
6.9155998 -3.4843998 -1.6462001
6.9210668 -3.4843998 -1.6430668
6.9333 -3.4857001 -1.6405001
6.9452 -3.4863501 -1.6415501
6.9576001 -3.4856999 -1.6451
6.9625001 -3.4881001 -1.6437
6.4194002 -3.4707 -1.6490999
6.4253998 -3.474 -1.6483001
6.4358001 -3.4744999 -1.64455
6.4489999 -3.4712 -1.6408
6.4549999 -3.4758 -1.64135
6.4621501 -3.47455 -1.6414001
6.8228998 -3.4714 -1.648
6.8841 -3.4702001 -1.6496
6.9056001 -3.4756999 -1.6482601
6.9179254 -3.474575 -1.6433749
6.9224 -3.4735999 -1.6423
6.948 -3.4782 -1.6425
6.4162331 -3.4647667 -1.6462666
6.4237499 -3.4640498 -1.6422
6.4320998 -3.4672999 -1.6418
6.4557996 -3.4682 -1.6418333
6.4637198 -3.4639599 -1.6414999
6.8734002 -3.4675 -1.6497999
6.8857002 -3.4658 -1.6495
6.3983998 -3.4517 -1.65
6.4050999 -3.4544334 -1.6460667
6.4106002 -3.4556999 -1.6434
6.4248748 -3.4532502 -1.641225
6.4364004 -3.4556999 -1.6414
6.445375 -3.4528749 -1.6440001
6.4597998 -3.4517 -1.6408
6.4601998 -3.4544001 -1.6411999
6.3966498 -3.4481502 -1.6480501
6.4052334 -3.4468 -1.6429334
6.4138498 -3.4447999 -1.64345
6.4268999 -3.4442999 -1.6465499
6.4337502 -3.44275 -1.6465499
6.4485002 -3.4468999 -1.6452
6.4512 -3.44835 -1.6435
6.3743 -3.431 -1.6476001
6.385375 -3.4356749 -1.6444249
6.4052 -3.4363999 -1.6449001
6.4198999 -3.4328001 -1.6497999
6.4243336 -3.4352334 -1.6478333
6.4335251 -3.4351501 -1.6451
6.4449749 -3.4363003 -1.641575
6.3640003 -3.42415 -1.6471
6.3758664 -3.4252002 -1.6441332
6.3854003 -3.4262333 -1.6430334
6.4049501 -3.4273 -1.6474
6.4154997 -3.4217501 -1.6477001
6.4266 -3.4244201 -1.6440601
6.4386001 -3.4265499 -1.64105
6.3428497 -3.4127502 -1.6474749
6.35605 -3.4124999 -1.6442499
6.3641253 -3.413075 -1.6435499
6.3785 -3.4105999 -1.6461999
6.3839998 -3.4149001 -1.6454
6.4061999 -3.4168 -1.64765
6.423233 -3.4163332 -1.6431667
6.3439498 -3.4060249 -1.6469501
6.3566751 -3.4059248 -1.647725
6.3646002 -3.4082 -1.6454999
6.3769751 -3.4048998 -1.647575
6.3852501 -3.4056001 -1.64695
6.3944998 -3.4031 -1.6426749
6.4180002 -3.4094 -1.6422
6.3585 -3.3926001 -1.6495
6.3638668 -3.3938 -1.6492
6.3749499 -3.3927 -1.6458499
6.3835664 -3.3952 -1.6439333
6.3996 -3.3996 -1.6421
6.3573999 -3.3833499 -1.64835
6.3652668 -3.3854668 -1.6462332
6.3743 -3.3861001 -1.6427
6.3365002 -3.3710001 -1.6497
6.3438668 -3.3740666 -1.6492
6.3523202 -3.3728797 -1.64382
6.3386002 -3.3671 -1.6497
6.3439002 -3.3673 -1.6485
8.3662004 -4.3053002 -1.6348
7.3787999 -4.2919002 -1.6337
7.3813 -4.2933002 -1.6315
7.3789001 -4.2857499 -1.63445
7.3810205 -4.2839804 -1.6321999
7.7744331 -4.2866669 -1.6381
7.7827001 -4.2828999 -1.6372
8.3473501 -4.2830501 -1.6389999
7.3782001 -4.2793999 -1.6378
7.3811998 -4.27355 -1.634975
7.7763004 -4.27775 -1.6385
7.7828331 -4.2757668 -1.6375333
7.8319998 -4.2785001 -1.6390001
6.3378749 -4.2645502 -1.6384749
6.3482666 -4.2639003 -1.6363
6.3545504 -4.2617002 -1.6355
6.3691001 -4.2687001 -1.6364
7.3872795 -4.2684798 -1.63442
7.3947501 -4.2643499 -1.6356499
7.4047799 -4.2638402 -1.6335399
7.7842669 -4.2662334 -1.6377999
7.7917004 -4.2645502 -1.6370001
7.8104 -4.2606001 -1.6339999
7.8218002 -4.2637 -1.6332
6.3414998 -4.2582002 -1.6377
6.3541002 -4.2550998 -1.6382999
6.3642502 -4.2557001 -1.6364501
6.3724999 -4.2527499 -1.63755
7.3962998 -4.2543001 -1.6382999
7.4054332 -4.2544332 -1.6343666
7.4117002 -4.2554998 -1.6328
7.7786999 -4.2589002 -1.6372
7.7864504 -4.2551999 -1.6366999
6.3570333 -4.2448001 -1.6387666
7.3967996 -4.2464333 -1.6384999
7.4043999 -4.2438498 -1.6359
7.4143252 -4.2457752 -1.6329501
7.4383998 -4.2452998 -1.6307
7.4437504 -4.24225 -1.6313
7.5415001 -4.2403998 -1.6389
7.7660999 -4.2441001 -1.6394501
7.7783666 -4.2441001 -1.6348667
7.7821002 -4.2451 -1.6337
7.7940998 -4.2486 -1.6303
6.3578 -4.2346001 -1.63885
6.3627996 -4.2350998 -1.6386
6.9152002 -4.2302999 -1.635
7.4035249 -4.2350502 -1.6382751
7.414 -4.2382665 -1.6332999
7.4245 -4.235775 -1.634325
7.447 -4.2381001 -1.6314
7.4567666 -4.2367001 -1.6319667
7.4643502 -4.2337751 -1.631775
7.4773502 -4.2312498 -1.6343501
7.4814 -4.2305999 -1.6336
7.5184002 -4.2336001 -1.6345
7.7575002 -4.2316999 -1.6398
7.7617002 -4.2340002 -1.6378
7.7730999 -4.2340002 -1.6326499
6.3542333 -4.226233 -1.6384667
6.9146667 -4.2278333 -1.6364332
7.4152746 -4.2259998 -1.6386499
7.4264498 -4.22785 -1.633875
7.4312 -4.2231002 -1.6356
7.4424667 -4.2275333 -1.6360334
7.4550748 -4.2262249 -1.63845
7.4660997 -4.22785 -1.6363
7.4742002 -4.22645 -1.6375
7.4865665 -4.2265 -1.6359
7.4951997 -4.2245002 -1.6371001
7.5040994 -4.2244668 -1.6367334
7.755167 -4.2252669 -1.6369333
7.7659001 -4.2254 -1.6321
7.7705002 -4.2262998 -1.6301
7.8695998 -4.2244 -1.6317
7.8867998 -4.2242999 -1.6316
7.9007001 -4.2254 -1.6339
6.8169999 -4.2136998 -1.6397001
6.8434 -4.211 -1.6336
6.8863001 -4.2126002 -1.636
6.8951502 -4.2119002 -1.6374
6.9051399 -4.2133603 -1.6341
6.9277 -4.2112999 -1.6364
6.9332504 -4.2132502 -1.63105
6.94205 -4.21105 -1.63105
7.4254999 -4.2199001 -1.6398
7.5055499 -4.2186003 -1.63915
7.7476001 -4.2154503 -1.6366501
7.7551999 -4.2179999 -1.6353
7.8434 -4.2104001 -1.6319
7.8734002 -4.2108998 -1.6311001
7.9366999 -4.217 -1.6332
6.3847499 -4.2019501 -1.6384001
6.8151994 -4.2053161 -1.6354166
6.8243661 -4.2047668 -1.6356667
6.8362002 -4.2080002 -1.6372
6.8441663 -4.2080336 -1.6377
6.85186 -4.2059202 -1.63708
6.8731003 -4.2028999 -1.63525
6.8878002 -4.2045002 -1.6379
6.8944502 -4.2028499 -1.635
6.9011497 -4.2026501 -1.6348
6.9294 -4.2093496 -1.6364501
6.9330597 -4.2039199 -1.6352199
6.9442997 -4.2024002 -1.6317501
7.7462001 -4.2069001 -1.6357
7.7535338 -4.2046499 -1.6347834
7.7642002 -4.2073002 -1.6302
7.7701998 -4.2019 -1.6307
7.8330498 -4.2063503 -1.63275
7.8436999 -4.2022333 -1.6331
7.8547001 -4.2039666 -1.6340667
7.86555 -4.20365 -1.6363001
7.8740997 -4.2035999 -1.63055
7.8874002 -4.2061 -1.6301
7.89575 -4.2028999 -1.6325251
6.3849602 -4.1952395 -1.6391001
6.3947001 -4.1918497 -1.6389501
6.4847999 -4.1901999 -1.6398
6.8661499 -4.1986504 -1.6387
6.8734503 -4.1942997 -1.6395
6.9374499 -4.198225 -1.63665
7.757 -4.1975999 -1.6365499
7.7645249 -4.1949248 -1.6361251
7.7750001 -4.1959252 -1.633725
7.7841501 -4.1937499 -1.635
7.7932997 -4.1940498 -1.6336999
7.8006001 -4.1964998 -1.6323
7.8167329 -4.1971002 -1.6358334
7.8291998 -4.1966 -1.6397001
7.8347001 -4.1979499 -1.63785
7.848 -4.1971998 -1.64
7.8678999 -4.1988502 -1.6362
7.8757997 -4.1978664 -1.6379
7.8846502 -4.197 -1.6373501
7.8943667 -4.1933665 -1.6367
7.9037752 -4.1954999 -1.633175
7.9127502 -4.1933498 -1.6329501
6.3886499 -4.18785 -1.6398499
6.3962002 -4.1830997 -1.6393501
6.4840498 -4.1823997 -1.63875
6.8305001 -4.1844001 -1.6336
6.9296999 -4.1848001 -1.6338501
6.9348998 -4.1893001 -1.6339999
7.7744503 -4.18855 -1.63855
7.7837496 -4.1873999 -1.6386
7.7979002 -4.1874504 -1.6394501
7.8994002 -4.1877999 -1.6389
7.9066334 -4.1865668 -1.6380666
7.9182668 -4.1875329 -1.6352668
7.9256496 -4.1838999 -1.63565
7.93435 -4.1862001 -1.633
7.9401002 -4.1815 -1.6363
7.9503002 -4.1869001 -1.6327
6.3944001 -4.1763 -1.6395
6.4902 -4.171 -1.6335
6.9155998 -4.1762252 -1.638325
6.9211998 -4.1781998 -1.633
7.9362001 -4.1794 -1.6384
7.9417 -4.1791501 -1.63785
7.9526997 -4.17735 -1.638
7.9638 -4.1752 -1.6396
6.4569998 -4.1662998 -1.6395
6.46 -4.1654 -1.6399
6.4777002 -4.1687002 -1.636
6.4885998 -4.1672001 -1.6328
6.49295 -4.1626997 -1.633
6.9151201 -4.1656003 -1.63738
8.3551998 -4.1673002 -1.6398
6.4435668 -4.1539335 -1.6381334
6.4564667 -4.1548667 -1.6363667
6.464767 -4.1556001 -1.6346334
6.4751005 -4.1555748 -1.6352251
6.4819336 -4.1532335 -1.6349001
6.9070001 -4.152 -1.6342499
6.9143 -4.1594 -1.635
8.3373499 -4.1537499 -1.63885
6.4313998 -4.1415 -1.6394
6.4468498 -4.1487503 -1.6368001
6.4815998 -4.1483002 -1.6368001
6.9035749 -4.1433506 -1.6359249
7.9105 -4.1441998 -1.6397001
8.3457003 -4.1497998 -1.6368999
8.3594999 -4.1406002 -1.6382999
6.9057331 -4.1349998 -1.6343333
7.8615665 -4.1359668 -1.6386334
7.9085002 -4.1370001 -1.6388
8.3253002 -4.1364002 -1.63555
8.3322506 -4.1350999 -1.6336
8.3584995 -4.1371999 -1.6379
8.3643999 -4.1336999 -1.6385
6.3917999 -4.1241999 -1.6375999
6.4088998 -4.1243 -1.6332999
6.4123001 -4.1292 -1.637
7.8139 -4.1226001 -1.6391001
7.835 -4.1230001 -1.6398
7.8572001 -4.1286001 -1.6382
7.8709002 -4.1234999 -1.6372
8.3197002 -4.1209002 -1.6394
8.3247995 -4.1297998 -1.635
8.3337002 -4.1263499 -1.6361001
8.3594999 -4.1280999 -1.6373
8.3650999 -4.1229 -1.6378
6.3594999 -4.1174002 -1.6384
6.3636999 -4.1146002 -1.6388
6.3744001 -4.1129999 -1.6356
6.3851004 -4.1129999 -1.6326499
7.8678999 -4.1156998 -1.636
8.3193998 -4.1178002 -1.6391
8.3214998 -4.1125002 -1.6390001
8.3331337 -4.1139669 -1.6350001
6.3569336 -4.1036 -1.6378666
6.36415 -4.1035004 -1.6387
6.3753405 -4.1053605 -1.63386
6.3807998 -4.1005998 -1.6328
7.7718496 -4.1019001 -1.6373999
7.8023 -4.1072998 -1.63585
7.8150001 -4.1034999 -1.6348
8.3229504 -4.1068001 -1.6387
8.3346996 -4.1064 -1.6346999
8.3467999 -4.1059999 -1.6365
8.3515997 -4.1051998 -1.6372
6.3653002 -4.0961204 -1.63778
6.3759665 -4.095633 -1.6329666
6.3800998 -4.0917001 -1.6316
6.4952002 -4.0949998 -1.6329
7.0084 -4.0991001 -1.6318001
7.4707999 -4.0992999 -1.6384
7.7686005 -4.0940752 -1.6361749
7.7751999 -4.0914998 -1.6356
7.7975998 -4.0973001 -1.6342
7.8142004 -4.0952501 -1.63395
8.3184996 -4.0921001 -1.6398
8.323266 -4.0955005 -1.6378666
8.3424997 -4.0931501 -1.63485
6.3671403 -4.0867205 -1.6379799
6.3743405 -4.0851202 -1.6351801
6.3833499 -4.08395 -1.6325001
6.4552002 -4.0895 -1.6301
6.9652333 -4.0841999 -1.6366333
6.9772339 -4.0817666 -1.6315333
7.4463 -4.0888 -1.6387
7.4524002 -4.0833001 -1.6338
7.4691 -4.0801001 -1.6336
7.4727001 -4.0851998 -1.6346999
7.6533999 -4.0812001 -1.6397001
7.7698002 -4.0826998 -1.6368001
7.7716999 -4.0837002 -1.6357501
7.7893 -4.0900002 -1.6322
7.7936001 -4.0844498 -1.63245
7.8095002 -4.0822001 -1.632
7.8141999 -4.0876999 -1.6332999
7.8559499 -4.0852003 -1.6314
8.3340502 -4.0889997 -1.63905
6.3769002 -4.0756831 -1.6376834
6.3854399 -4.0757203 -1.6321399
6.3910999 -4.0721998 -1.6312499
6.4710002 -4.0742998 -1.6311001
6.9654799 -4.0767803 -1.6366001
6.9747 -4.0736504 -1.63375
6.9830499 -4.0771499 -1.6315999
6.99085 -4.0774002 -1.633
7.4151001 -4.0716 -1.64
7.4261336 -4.0757003 -1.6359
7.4440999 -4.0755 -1.6317
7.4836998 -4.0792999 -1.6305
7.77355 -4.073925 -1.6352
7.7895999 -4.0718002 -1.6306
7.7918 -4.0759001 -1.6314
7.8045998 -4.0735998 -1.6305
6.384625 -4.0645504 -1.6347001
6.3922997 -4.0651002 -1.6314334
6.9667997 -4.0676498 -1.6368999
6.9762249 -4.0666752 -1.63715
6.9836998 -4.0674 -1.6372
7.4178333 -4.0652332 -1.6362
7.4228001 -4.0655003 -1.63255
7.4415998 -4.0665998 -1.6303999
7.4594002 -4.0689998 -1.6309
7.7723002 -4.0642252 -1.634125
7.7912998 -4.0665998 -1.6305
7.8688998 -4.0616999 -1.6315
7.89505 -4.06425 -1.6359
6.3793001 -4.0563498 -1.637
6.3838253 -4.0557251 -1.6341
6.9797001 -4.0594001 -1.6382
6.9893999 -4.0535998 -1.6393
7.3983998 -4.0537 -1.6381
7.4082999 -4.0591002 -1.6375999
7.4247499 -4.0549331 -1.6332666
7.4310002 -4.0504999 -1.6325001
7.7654252 -4.0538001 -1.63765
7.7756248 -4.0546751 -1.6331501
7.7986999 -4.0523 -1.6303999
7.8181 -4.0503998 -1.6306
7.8556666 -4.0558333 -1.6316
7.8674998 -4.0514998 -1.6332
7.8706999 -4.0594001 -1.6315
7.9063001 -4.0534 -1.6368001
6.36835 -4.0451999 -1.63855
6.3773999 -4.0445666 -1.6344333
6.3839998 -4.0496998 -1.6346
6.4060001 -4.0469999 -1.6309
6.4169002 -4.0402999 -1.6321
6.4232998 -4.0416002 -1.6334
6.4351501 -4.0420504 -1.6307
6.9612002 -4.0486999 -1.6391
7.3964996 -4.0457001 -1.636375
7.4023499 -4.0451002 -1.6353
7.4298 -4.0497999 -1.635
7.4342999 -4.044775 -1.6338999
7.4671001 -4.0447502 -1.63265
7.4745669 -4.0464997 -1.6322333
7.4843998 -4.0451999 -1.6337667
7.4916 -4.0421 -1.6338
7.7651 -4.0425501 -1.638
7.7730751 -4.0443749 -1.632525
7.8007998 -4.0443001 -1.6301
7.8263001 -4.0486999 -1.6318001
7.8328667 -4.0440335 -1.6324667
7.8657999 -4.0475998 -1.6325001
7.8737998 -4.046 -1.6309
7.8862 -4.0430999 -1.6355
6.3424001 -4.0341001 -1.6398
6.3631754 -4.0357499 -1.6377
6.3746338 -4.0364666 -1.6329666
6.3930001 -4.0387001 -1.6301
6.4008999 -4.0302 -1.6305
6.4154 -4.0324502 -1.63335
6.4238501 -4.0335503 -1.633175
6.4382 -4.0370998 -1.6307
6.5268998 -4.0398002 -1.6371
7.3994999 -4.0362 -1.6367
7.4060001 -4.0360999 -1.6364
7.41645 -4.0351 -1.63675
7.4343748 -4.0358996 -1.633075
7.4446001 -4.0325499 -1.63445
7.454 -4.0363002 -1.6351
7.4672499 -4.0364499 -1.6373
7.4883003 -4.0388498 -1.6343
7.5579 -4.0302 -1.6382999
7.7643857 -4.0339856 -1.6367285
7.7752995 -4.0330334 -1.6314
7.8060999 -4.0367999 -1.6303
7.8179002 -4.0352998 -1.6321
7.8269 -4.0367999 -1.6337
7.8375001 -4.0360999 -1.6353
7.843966 -4.0373998 -1.6346666
7.8635144 -4.0368285 -1.6360713
6.3586001 -4.0267 -1.63705
6.3641996 -4.0239248 -1.6328251
6.3736 -4.0290999 -1.6303
6.4077001 -4.0233998 -1.6358
6.4180002 -4.0244002 -1.6378
6.4266 -4.027967 -1.6340333
6.4847999 -4.0275002 -1.6379499
6.4962602 -4.0235 -1.63858
6.5037999 -4.0254998 -1.6337
6.5152001 -4.0268002 -1.6335
6.5328002 -4.0293999 -1.6394
7.4054337 -4.0226331 -1.6354666
7.4102001 -4.0243001 -1.6346
7.4362001 -4.0293999 -1.6341
7.7653332 -4.0248666 -1.6383333
7.7734594 -4.0248599 -1.6339201
7.7857752 -4.0240002 -1.6328251
7.8006496 -4.0248499 -1.63395
7.8160501 -4.0235 -1.6377499
7.8248 -4.0265002 -1.6381
7.8327503 -4.0234499 -1.63905
6.3559003 -4.0165501 -1.637725
6.3654003 -4.0172 -1.6322501
6.3724999 -4.0123 -1.6305
6.3968 -4.0193 -1.6332999
6.5042753 -4.0186501 -1.6355001
6.5131998 -4.0159998 -1.63925
7.18645 -4.0121498 -1.6345999
7.4026003 -4.0141497 -1.6350501
7.4168 -4.0174999 -1.6350999
7.4716001 -4.0106001 -1.6356
7.4941998 -4.0152998 -1.6331
7.5042 -4.0191002 -1.6365
7.5146661 -4.0178666 -1.6372334
7.5212998 -4.0194998 -1.6367
7.538475 -4.0140252 -1.634275
7.5431004 -4.0149999 -1.6399
7.7684002 -4.0187001 -1.6392
7.7737999 -4.0186 -1.6387
7.7838998 -4.0156665 -1.6368999
7.8027 -4.0181999 -1.6365
7.8172503 -4.01545 -1.6386499
6.3483 -4.0036497 -1.6396
6.3546 -4.0056248 -1.634075
6.3600998 -4.0043998 -1.6322
6.3769999 -4.0068002 -1.6307
6.3842001 -4.0086002 -1.6322
6.467 -4.0051999 -1.6395
6.4755001 -4.0079002 -1.6389
7.3864002 -4.0082998 -1.6398
7.4015999 -4.0079002 -1.6343
7.4117999 -4.0079002 -1.6332999
7.4348998 -4.0023999 -1.6367
7.4506001 -4.0079999 -1.6399
7.4607 -4.0077 -1.6362
7.7874999 -4.00875 -1.63875
7.7923002 -4.0040998 -1.6391
7.8206 -4.0095 -1.6387
7.8456998 -4.0042 -1.6395
7.8799 -4.0096002 -1.64
7.9460502 -4.0074501 -1.6394
8.3788996 -4.0071998 -1.6397001
6.3473749 -3.995075 -1.6372
6.3557334 -3.9953001 -1.6319333
6.3814001 -3.9986999 -1.6305
6.4509001 -3.9927001 -1.6351
6.5324001 -3.9958 -1.6355
7.3654003 -3.9939499 -1.63755
7.3749504 -3.9927251 -1.6344001
7.3869667 -3.9934666 -1.6349334
7.4071002 -3.9965 -1.6395
7.4169998 -3.9928 -1.6355
7.4224 -3.9928 -1.6364
7.4347 -3.99225 -1.63845
7.7859001 -3.9916999 -1.6398
7.79635 -3.9954 -1.63905
7.8269 -3.9916999 -1.6382
7.8301001 -3.9962001 -1.6391
7.8436003 -3.9972501 -1.6386
7.9179001 -3.9918001 -1.6363
7.9219999 -3.9969001 -1.6374
7.9359999 -3.9916 -1.6364
7.9438 -3.9986999 -1.6382999
6.33775 -3.9807501 -1.6398001
6.3450999 -3.9853499 -1.63685
6.3508 -3.9885333 -1.6342334
6.4285998 -3.9814 -1.637
6.4322 -3.9837 -1.6355
6.448 -3.9853001 -1.6313
6.45645 -3.9849501 -1.63395
6.5099001 -3.9820001 -1.6372
6.5149002 -3.9851 -1.636
6.5233002 -3.9872 -1.6328
6.5422001 -3.9823999 -1.6332
7.39465 -3.98825 -1.63125
7.7879 -3.9864998 -1.6396501
7.7953501 -3.9858999 -1.6394501
7.8034668 -3.9836667 -1.6392001
7.8263001 -3.9839001 -1.6374
7.8388 -3.9886999 -1.6371
7.8853998 -3.9846001 -1.6388
7.9154 -3.9844 -1.6353
6.3344002 -3.9709666 -1.6388
6.3458204 -3.9763198 -1.6344398
6.4257998 -3.9756999 -1.635875
6.4359999 -3.9763999 -1.6305001
6.5078664 -3.9759333 -1.6353334
6.5152001 -3.9753501 -1.6343249
6.5244436 -3.9738858 -1.6350143
7.7932 -3.97595 -1.6396
7.8058996 -3.9735 -1.6387
7.8247337 -3.9742668 -1.6344666
7.8385 -3.9730999 -1.6357
7.8569002 -3.9748001 -1.63885
7.8767996 -3.9725499 -1.6349
7.8863001 -3.97435 -1.6352501
7.9064999 -3.9707999 -1.6325999
7.9127998 -3.97545 -1.63265
7.9208999 -3.9779999 -1.6328
6.3292999 -3.9605 -1.6382
6.3323002 -3.9650998 -1.6380999
6.3439002 -3.9696 -1.6346999
6.4187002 -3.9656999 -1.63825
6.4244332 -3.9656169 -1.6344334
6.4306002 -3.9635999 -1.6329
6.4446998 -3.9665999 -1.6382
7.4198999 -3.9653001 -1.6388
7.4229002 -3.9697001 -1.6397001
7.5079999 -3.9625001 -1.64
7.5135999 -3.9655001 -1.6385
7.7961998 -3.9686 -1.6395
7.8043251 -3.9633501 -1.638975
7.8234997 -3.9685001 -1.6356001
7.8376002 -3.9697001 -1.638
7.8555336 -3.9623001 -1.6385001
7.8727999 -3.9690001 -1.6354001
7.8840003 -3.9644668 -1.6368333
7.8930335 -3.9650002 -1.6355667
7.9049997 -3.96385 -1.6317999
7.9134002 -3.96345 -1.6303
8.3886003 -3.9611001 -1.6377
8.4017 -3.961 -1.6398
6.3558002 -3.9526999 -1.6325001
6.3741002 -3.9560001 -1.6314
6.3850999 -3.9518001 -1.6378
6.3915 -3.9584 -1.6397001
6.4257331 -3.9587333 -1.6371332
6.5098 -3.9568999 -1.6392
6.5129576 -3.9552429 -1.6343144
7.4138336 -3.9553001 -1.6385666
7.4222999 -3.9577999 -1.6385
7.5044498 -3.9547501 -1.6387
7.8072 -3.9542 -1.64
7.8138499 -3.9591 -1.6387501
7.8207002 -3.95345 -1.6394501
7.8527002 -3.9558501 -1.6393499
7.8615999 -3.95575 -1.63805
7.8867002 -3.9577999 -1.6367
7.8902502 -3.9517999 -1.6340001
7.9078331 -3.9540999 -1.6314667
7.9217 -3.951 -1.6307
6.3379998 -3.9414999 -1.6375999
6.3428998 -3.9427664 -1.6370001
6.3533168 -3.9457667 -1.6328334
6.36235 -3.94315 -1.63375
6.3803 -3.9433 -1.6359
6.5133753 -3.9452877 -1.6345376
7.4145498 -3.9465499 -1.6387999
7.503633 -3.9436665 -1.6357332
7.5228 -3.9439001 -1.6327
7.8089499 -3.9474499 -1.63975
7.8257504 -3.9467499 -1.63965
7.8487 -3.9475999 -1.638
7.8548498 -3.9433 -1.6386499
7.8664336 -3.9465332 -1.6380666
7.8702998 -3.9403 -1.6381
7.8845668 -3.9464667 -1.6354002
7.8946996 -3.9444668 -1.6350335
7.9049001 -3.9426501 -1.6370001
7.9162002 -3.9462664 -1.6339999
7.9247251 -3.9442501 -1.6312749
8.0177002 -3.941 -1.637
6.3452835 -3.9344168 -1.6368332
6.3512998 -3.9309001 -1.6363
6.3660002 -3.9372501 -1.6349499
6.3759999 -3.9379001 -1.6368999
6.4345002 -3.9328001 -1.6397001
6.5162287 -3.9368856 -1.6338714
6.52355 -3.9328251 -1.6346501
6.5351501 -3.931 -1.63475
6.54105 -3.9317 -1.63585
7.4986 -3.9361334 -1.636
7.5015001 -3.9326999 -1.6335
7.5128999 -3.9358001 -1.6303
7.8148999 -3.9338 -1.6396
7.8218498 -3.93575 -1.6381
7.8579998 -3.9370999 -1.6386
7.8786001 -3.9384999 -1.6394
7.8801999 -3.9361999 -1.6394
7.9049001 -3.93665 -1.6379499
7.9139004 -3.9366 -1.6366
7.9267669 -3.9362667 -1.6330333
7.93185 -3.9362502 -1.6310999
6.3478999 -3.9288001 -1.6378
6.3536248 -3.9254498 -1.6373001
6.3632498 -3.9247 -1.6389999
6.5239 -3.9296 -1.6313
7.4995999 -3.9288001 -1.6355
7.5022993 -3.9243999 -1.6339201
7.5229001 -3.9263999 -1.6365
7.8141332 -3.9253333 -1.6387
7.8255501 -3.9286001 -1.6381
7.8361001 -3.9261999 -1.6397001
7.8864999 -3.92295 -1.6393501
7.9039001 -3.9300001 -1.6372
7.9158669 -3.9257667 -1.6360334
7.9289503 -3.9258499 -1.6324999
7.9353499 -3.9260499 -1.6308
7.9692001 -3.9291 -1.631
8.0066004 -3.9298 -1.6343
6.3408499 -3.91745 -1.64
7.4843998 -3.9135499 -1.6396
7.49265 -3.91785 -1.6387
7.8178 -3.9170001 -1.6386
7.8273001 -3.9188001 -1.6375999
7.9265499 -3.9157 -1.6313
6.4060001 -3.9059501 -1.6374
7.7785001 -3.9035001 -1.6392
7.8079 -3.90605 -1.63465
7.9147997 -3.90535 -1.63415
7.9243002 -3.9070001 -1.6302
6.5350504 -3.8936501 -1.63905
7.4759998 -3.8933001 -1.6363
7.4848003 -3.8965001 -1.6354001
7.7515998 -3.8929 -1.6393
7.7712002 -3.8907001 -1.6341
7.7807999 -3.8984001 -1.6364
7.8067999 -3.8996 -1.6325001
7.9115496 -3.8947999 -1.6327
6.9159498 -3.8827 -1.6393499
6.9268999 -3.8862 -1.6391
7.46735 -3.8874002 -1.6396501
7.4753251 -3.88485 -1.6367249
7.4846001 -3.8889 -1.6346999
7.754467 -3.8852999 -1.6373
7.7633328 -3.8837669 -1.6340666
7.9057999 -3.8859999 -1.631
6.9171 -3.878 -1.6391
6.9204998 -3.8743 -1.6393
7.4732499 -3.8729501 -1.6393001
7.5022001 -3.8722999 -1.6389
7.7572498 -3.87625 -1.63885
7.7652254 -3.87585 -1.633225
7.4748001 -3.8652999 -1.6389
7.7585001 -3.8681002 -1.63835
7.7633805 -3.8655801 -1.63342
7.774467 -3.8635998 -1.6332666
7.7647328 -3.855767 -1.6383333
7.7751002 -3.8578999 -1.6338
7.7820501 -3.853075 -1.6341
7.4902 -3.8487 -1.64
7.5275002 -3.8474 -1.6382
7.772367 -3.8458335 -1.6387666
7.7827501 -3.844625 -1.6334751
7.7919998 -3.8417001 -1.6334
6.9067998 -3.8308001 -1.64
6.9159002 -3.8359001 -1.6396
7.4761 -3.8327 -1.6388
7.4874496 -3.8369498 -1.6385
7.7771001 -3.8372998 -1.63885
7.7861996 -3.8349667 -1.6383333
7.7946405 -3.83602 -1.63508
7.8000998 -3.8340001 -1.6341
6.9056501 -3.8233752 -1.63775
7.4765248 -3.8248999 -1.636875
7.4849 -3.8255999 -1.6317
7.5242 -3.8225 -1.6355
7.7934995 -3.8231335 -1.6385332
7.8022251 -3.8263249 -1.6345
7.8137002 -3.8255999 -1.6302
6.8973498 -3.812 -1.6350999
7.4404001 -3.8144 -1.6390001
7.4514999 -3.8169999 -1.6385
7.4698 -3.8122001 -1.6359
7.4727998 -3.8119001 -1.6345667
7.4807 -3.8178 -1.6302
7.4914999 -3.8148 -1.6318001
7.5008497 -3.81815 -1.631
7.7950001 -3.8150501 -1.6372
7.8050752 -3.8132749 -1.6339
7.8175998 -3.8187001 -1.6302
6.8955002 -3.8047204 -1.63526
7.4371333 -3.8049667 -1.6358334
7.4547997 -3.8032 -1.63785
7.4689999 -3.8034 -1.635
7.4720001 -3.8034501 -1.6328001
7.4879999 -3.8099999 -1.6308
7.5110002 -3.8041 -1.6315
7.7925501 -3.8048501 -1.6387
7.8038998 -3.8038001 -1.6336
6.8899002 -3.7911999 -1.6329
6.8935666 -3.7987335 -1.6351334
7.4186001 -3.7946 -1.6388
7.4274998 -3.7962999 -1.6351
7.4372001 -3.7955999 -1.6367
7.4443998 -3.7936502 -1.6378
7.4538498 -3.7941999 -1.63685
7.4667001 -3.7992001 -1.6342
7.7932 -3.7962999 -1.6380999
7.8049498 -3.795475 -1.633775
7.8102999 -3.7943001 -1.6325001
6.8786998 -3.7821 -1.6375
6.8834667 -3.7866001 -1.6370999
7.4151001 -3.79 -1.6377
7.4242496 -3.7876 -1.6391001
7.4308 -3.7839 -1.6399
7.44625 -3.78585 -1.6361499
7.4574499 -3.78705 -1.6315
7.7870998 -3.78455 -1.6388
7.7950001 -3.7858665 -1.6374999
7.8074999 -3.78545 -1.63405
7.8120999 -3.7852001 -1.6320333
6.8662 -3.7767 -1.63965
6.8758998 -3.7753 -1.6363
7.4258499 -3.77105 -1.6379
7.4386997 -3.77755 -1.63535
7.4447999 -3.7762499 -1.6336501
7.4548998 -3.7785001 -1.6303
7.7656999 -3.7725999 -1.6397001
7.7869997 -3.7754998 -1.6380501
7.7937498 -3.7744 -1.6363
7.8074999 -3.7780001 -1.6334
6.8663001 -3.77 -1.6390001
7.4180999 -3.7686 -1.6390001
7.4233999 -3.7632499 -1.638075
7.4384999 -3.7663667 -1.6343333
7.4458003 -3.7662001 -1.6329001
7.4544001 -3.7607999 -1.6339
7.7795 -3.7616 -1.6356
7.7867999 -3.7679999 -1.6374
7.4182 -3.7571001 -1.6379
7.4253998 -3.7539332 -1.638
7.4351001 -3.7549334 -1.6362667
7.4453335 -3.7542999 -1.6335334
6.8428001 -3.7405 -1.6392
7.4277496 -3.7459002 -1.6386
7.4357834 -3.7427833 -1.6357335
7.4568996 -3.7434001 -1.6328501
7.7948499 -3.7462337 -1.6355333
6.8442998 -3.7384 -1.6393
6.9811001 -3.7386999 -1.6364
7.3168001 -3.7314 -1.6389
7.4289999 -3.7307999 -1.6375
7.4337502 -3.7360001 -1.6373999
7.4457998 -3.7392001 -1.6332
7.4531999 -3.7352333 -1.6323334
7.8025398 -3.7356198 -1.63568
6.8744001 -3.7221 -1.6356
6.9313002 -3.7203 -1.6332
6.9463 -3.7228999 -1.6336
6.9540501 -3.7214999 -1.63485
6.9626999 -3.7234001 -1.6316
6.9761 -3.7279 -1.6344
7.3118 -3.7233 -1.6399
7.3231497 -3.7276001 -1.6397001
7.425633 -3.7243335 -1.6345
7.4334002 -3.7214999 -1.63605
7.4453802 -3.72402 -1.6327801
7.4525499 -3.7239499 -1.6303
7.8041 -3.7264249 -1.6354749
6.8670335 -3.7121334 -1.6340332
6.9250002 -3.7197001 -1.632
6.9327002 -3.7156 -1.6329
6.9453001 -3.7195001 -1.6356
6.9550338 -3.7175 -1.6363333
7.4232001 -3.7191999 -1.6354001
7.4379997 -3.71665 -1.6377499
7.4445281 -3.7124715 -1.6351
7.4582 -3.7112999 -1.6315
6.8642197 -3.7065399 -1.63862
6.8744712 -3.7040572 -1.6348144
6.8941998 -3.70175 -1.6321
6.9015999 -3.7044001 -1.6312
6.9140997 -3.7042999 -1.63345
6.9204001 -3.7007 -1.6368001
6.9350996 -3.7073002 -1.6375999
7.3583002 -3.7093999 -1.6389
7.4464998 -3.7054999 -1.6382
7.4532404 -3.7040601 -1.6376801
7.4622998 -3.7055168 -1.6316999
6.8697 -3.6979001 -1.6398
6.8758497 -3.6946001 -1.6380501
6.8853402 -3.6956401 -1.63638
6.8942499 -3.6935999 -1.6363
6.9057002 -3.6956 -1.63605
6.9239001 -3.7 -1.6373
7.3269334 -3.6946001 -1.6390333
7.3322001 -3.6949 -1.63825
7.3457003 -3.6960001 -1.63815
7.45502 -3.6940999 -1.63766
7.4653335 -3.6947832 -1.6321501
7.7928333 -3.6912 -1.6365666
6.8681998 -3.6810999 -1.6378
6.8899002 -3.6898999 -1.6375999
6.8966999 -3.688 -1.6387
6.9018002 -3.6881001 -1.6396
7.3276 -3.6882999 -1.6395
7.3336 -3.6828001 -1.64
7.4646997 -3.6856124 -1.636675
7.4716806 -3.6837201 -1.63114
7.7933569 -3.6848142 -1.6355141
6.8644996 -3.6753666 -1.6390333
6.8730001 -3.67805 -1.63835
7.33395 -3.6773 -1.6396
7.4647999 -3.6747501 -1.637375
7.4754748 -3.6757751 -1.631375
7.4808002 -3.6715 -1.6332
7.4913001 -3.6767001 -1.6329
7.7929001 -3.6762397 -1.6363201
7.8002 -3.6744001 -1.6319
7.4657168 -3.665 -1.6366835
7.4832001 -3.66675 -1.63325
7.7860999 -3.6637332 -1.6359
7.7930746 -3.6643748 -1.63465
7.4667997 -3.654325 -1.63595
7.46245 -3.6436501 -1.63555
7.4724002 -3.6470001 -1.6349
7.4864502 -3.6468 -1.6373999
7.4688001 -3.6396 -1.6363
7.4734998 -3.6391001 -1.6371
6.9743004 -3.6264 -1.63925
6.9495001 -3.6106999 -1.6382
6.9517002 -3.6173999 -1.6392
7.4903998 -3.6129 -1.6378
6.9527998 -3.6097 -1.6387
6.9872999 -3.6034 -1.6394
7.0256 -3.6073 -1.6316
7.4569001 -3.6055 -1.6392
7.4675002 -3.6019001 -1.6381
7.4864001 -3.6040502 -1.6336501
6.9731002 -3.5906 -1.633
7.46382 -3.5934803 -1.6351
7.4752998 -3.5915999 -1.6332999
6.5581002 -3.5899999 -1.6389
6.5653329 -3.5846498 -1.6381334
6.9690666 -3.5876331 -1.6378666
6.9719834 -3.5835497 -1.6342168
7.4654746 -3.587625 -1.6384749
7.4763999 -3.5894001 -1.6386
7.4821 -3.5852499 -1.63925
6.5653 -3.5755 -1.63875
6.5760002 -3.5787001 -1.6387
6.9747334 -3.5768669 -1.6357666
6.9804001 -3.5755 -1.6329
7.4693999 -3.5778 -1.6390001
6.9389 -3.5627 -1.6390001
6.9428501 -3.5632 -1.6398001
6.9692998 -3.5646 -1.6398
6.9719 -3.5659001 -1.6379
6.9412999 -3.5555 -1.6388
6.9292002 -3.5414 -1.6377
6.9355998 -3.546025 -1.63615
6.9551001 -3.5481 -1.6343501
6.92975 -3.5339 -1.6357501
6.9348001 -3.5337403 -1.6364599
6.9362197 -3.5235801 -1.63622
6.9425001 -3.5253999 -1.6310501
6.9766998 -3.5278001 -1.6351
6.9375501 -3.5147998 -1.635375
6.9450665 -3.5163333 -1.6306667
6.9538999 -3.5136001 -1.6321
6.9906001 -3.5186 -1.6394
6.9349999 -3.5053835 -1.6360666
6.9451003 -3.5028 -1.6360668
6.9556999 -3.5064001 -1.6367
6.9618001 -3.5012 -1.6373
6.9345994 -3.4948332 -1.6391333
6.9549999 -3.4992499 -1.6384001
6.9298 -3.4851 -1.6398
6.9393001 -3.4899001 -1.6395
6.4663501 -3.4718001 -1.6359999
6.4714999 -3.4758 -1.6362
6.4656997 -3.46506 -1.6354001
6.4963999 -3.4663 -1.6329
6.5044498 -3.4654999 -1.6344
6.5721998 -3.4656999 -1.6332999
6.42735 -3.4583001 -1.6399
6.4627252 -3.4551249 -1.6364751
6.4740496 -3.4530501 -1.6319499
6.4867339 -3.4543333 -1.6321667
6.5008001 -3.4584999 -1.633
6.4539399 -3.4436002 -1.6364399
6.4650249 -3.447 -1.633675
6.473 -3.4449501 -1.6331999
6.5598998 -3.4439001 -1.6358
6.44835 -3.4317999 -1.6364501
6.4519501 -3.4337001 -1.635
6.46455 -3.4367001 -1.63305
6.4734998 -3.4389 -1.6327
6.5246 -3.4354 -1.6303999
6.4394002 -3.4208 -1.6382
6.4456668 -3.4249001 -1.6367666
6.4538331 -3.426667 -1.6330334
6.4361668 -3.4172666 -1.6387668
6.4102998 -3.4026 -1.6375999
6.3895998 -3.3915999 -1.6346
6.3727999 -3.3827 -1.635
